-0.248710 1.017889 0.084258 0.000000 0.000000 1.000000
0.064996 -0.347923 -0.068918 0.000000 0.000000 1.000000
-0.189075 0.625841 0.400351 0.000000 0.000000 1.000000
-0.144441 -0.261730 0.000000 0.000000 0.000000 1.000000
0.046976 -0.384789 0.109078 0.000000 0.000000 1.000000
0.055434 -0.340273 -0.060412 0.000000 0.000000 1.000000
-0.490068 0.441820 -0.067623 0.000000 0.000000 1.000000
0.426964 0.872854 0.091184 0.000000 0.000000 1.000000
-0.037999 0.504066 0.434484 0.000000 0.000000 1.000000
-0.069448 -0.370205 0.122128 0.000000 0.000000 1.000000
-0.023743 -0.204614 -0.225884 0.000000 0.000000 1.000000
0.151499 -0.357253 0.087124 0.000000 0.000000 1.000000
0.000000 0.563322 0.441380 0.000000 0.000000 1.000000
-0.204801 0.280119 0.007815 0.000000 0.000000 1.000000
0.157605 1.372720 0.012869 0.000000 0.000000 1.000000
-0.103885 -0.338438 0.103930 0.000000 0.000000 1.000000
-0.003385 0.565928 0.433161 0.000000 0.000000 1.000000
-0.186819 0.631224 0.405107 0.000000 0.000000 1.000000
-0.198285 -0.159326 -0.020202 0.000000 0.000000 1.000000
0.000000 0.565805 0.436716 0.000000 0.000000 1.000000
0.004867 0.563728 0.439059 0.000000 0.000000 1.000000
0.051683 -0.351440 -0.060328 0.000000 0.000000 1.000000
0.115469 0.851708 -0.334849 0.000000 0.000000 1.000000
-0.150035 0.047440 -0.019973 0.000000 0.000000 1.000000
0.045309 0.508632 0.420631 0.000000 0.000000 1.000000
-0.036279 -0.382803 0.098228 0.000000 0.000000 1.000000
0.032352 1.079419 -0.036916 0.000000 0.000000 1.000000
-0.224614 0.392150 0.013534 0.000000 0.000000 1.000000
0.178893 0.555192 0.372882 0.000000 0.000000 1.000000
0.021047 -0.244660 -0.062496 0.000000 0.000000 1.000000
-0.276688 0.883457 -0.070832 0.000000 0.000000 1.000000
-0.037680 -0.363864 0.103417 0.000000 0.000000 1.000000
-0.004202 0.529921 0.437755 0.000000 0.000000 1.000000
0.056162 0.513209 0.431547 0.000000 0.000000 1.000000
0.375167 0.945322 0.045676 0.000000 0.000000 1.000000
0.421140 0.912498 -0.006653 0.000000 0.000000 1.000000
0.159130 0.009275 -0.049611 0.000000 0.000000 1.000000
0.046567 -0.188595 -0.180340 0.000000 0.000000 1.000000
-0.155864 1.155206 -0.086984 0.000000 0.000000 1.000000
-0.252488 -0.240940 0.026943 0.000000 0.000000 1.000000
-0.405382 0.748301 -0.193753 0.000000 0.000000 1.000000
0.122640 0.933771 -0.030057 0.000000 0.000000 1.000000
0.066208 0.520975 0.421881 0.000000 0.000000 1.000000
-0.139339 1.166764 -0.243778 0.000000 0.000000 1.000000
-0.036203 -0.336361 -0.025268 0.000000 0.000000 1.000000
-0.167217 1.105263 0.041022 0.000000 0.000000 1.000000
-0.239921 1.250037 0.044103 0.000000 0.000000 1.000000
-0.187433 0.626834 0.404355 0.000000 0.000000 1.000000
-0.138127 -0.291034 -0.032160 0.000000 0.000000 1.000000
0.066817 0.465656 0.424569 0.000000 0.000000 1.000000
-0.395644 0.685969 -0.303758 0.000000 0.000000 1.000000
0.027025 -0.077069 -0.285410 0.000000 0.000000 1.000000
-0.036713 -0.323743 0.028056 0.000000 0.000000 1.000000
0.201171 0.477881 0.383343 0.000000 0.000000 1.000000
0.006702 -0.179810 -0.361725 0.000000 0.000000 1.000000
0.150615 1.351255 0.183634 0.000000 0.000000 1.000000
-0.227639 1.283703 -0.037493 0.000000 0.000000 1.000000
0.057231 0.760971 -0.061471 0.000000 0.000000 1.000000
0.214426 0.529532 -0.017942 0.000000 0.000000 1.000000
-0.105607 0.989795 -0.087514 0.000000 0.000000 1.000000
-0.074326 0.998818 0.408897 0.000000 0.000000 1.000000
0.234013 0.486695 0.350098 0.000000 0.000000 1.000000
0.040874 0.831038 0.330161 0.000000 0.000000 1.000000
-0.267742 0.512827 0.369300 0.000000 0.000000 1.000000
0.217668 0.580863 0.399685 0.000000 0.000000 1.000000
-0.248621 0.466507 0.358000 0.000000 0.000000 1.000000
-0.003068 0.587281 0.460260 0.000000 0.000000 1.000000
0.101683 0.928563 0.112461 0.000000 0.000000 1.000000
-0.513124 0.361827 -0.136481 0.000000 0.000000 1.000000
-0.226119 0.507460 0.361625 0.000000 0.000000 1.000000
0.020970 -0.246174 -0.047971 0.000000 0.000000 1.000000
-0.018326 0.578653 0.439492 0.000000 0.000000 1.000000
0.116971 0.883488 0.368556 0.000000 0.000000 1.000000
0.145903 -0.233603 -0.055819 0.000000 0.000000 1.000000
-0.326749 -0.151401 -0.062517 0.000000 0.000000 1.000000
0.031914 0.833549 0.361501 0.000000 0.000000 1.000000
-0.023801 -0.105016 -0.254493 0.000000 0.000000 1.000000
0.261185 -0.061471 0.080652 0.000000 0.000000 1.000000
0.402703 0.702121 -0.262319 0.000000 0.000000 1.000000
0.080514 -0.389981 -0.058147 0.000000 0.000000 1.000000
0.165229 1.225106 -0.062254 0.000000 0.000000 1.000000
0.037613 -0.364193 -0.045630 0.000000 0.000000 1.000000
-0.041439 -0.080271 -0.297844 0.000000 0.000000 1.000000
0.085115 0.975613 0.414957 0.000000 0.000000 1.000000
-0.063349 -0.189360 0.180336 0.000000 0.000000 1.000000
-0.455987 0.776014 -0.330783 0.000000 0.000000 1.000000
-0.104784 0.818866 0.035423 0.000000 0.000000 1.000000
-0.192243 -0.113587 0.044790 0.000000 0.000000 1.000000
0.557075 0.520154 -0.236035 0.000000 0.000000 1.000000
0.129671 -0.392130 0.068053 0.000000 0.000000 1.000000
0.381622 0.505537 0.010743 0.000000 0.000000 1.000000
0.184082 1.335289 0.139099 0.000000 0.000000 1.000000
0.240155 -0.227355 0.038328 0.000000 0.000000 1.000000
0.071290 -0.335732 0.095563 0.000000 0.000000 1.000000
0.031650 -0.147200 -0.362475 0.000000 0.000000 1.000000
-0.193923 0.634987 0.406271 0.000000 0.000000 1.000000
-0.221803 0.588229 0.379081 0.000000 0.000000 1.000000
0.126994 -0.392926 -0.001560 0.000000 0.000000 1.000000
-0.211075 0.621890 0.369819 0.000000 0.000000 1.000000
0.034215 1.026904 -0.074336 0.000000 0.000000 1.000000
-0.022939 -0.057475 -0.368495 0.000000 0.000000 1.000000
0.043207 0.494521 0.428955 0.000000 0.000000 1.000000
0.214247 1.171903 -0.027701 0.000000 0.000000 1.000000
0.000652 0.843647 -0.162235 0.000000 0.000000 1.000000
0.600560 0.830734 -0.264437 0.000000 0.000000 1.000000
-0.238151 0.887688 0.026993 0.000000 0.000000 1.000000
-0.038176 -0.183198 -0.332628 0.000000 0.000000 1.000000
0.150516 -0.240331 0.025271 0.000000 0.000000 1.000000
-0.153579 1.035426 -0.015425 0.000000 0.000000 1.000000
0.134302 1.187755 0.223639 0.000000 0.000000 1.000000
-0.001976 -0.086376 -0.383260 0.000000 0.000000 1.000000
-0.079636 0.532714 0.431031 0.000000 0.000000 1.000000
-0.038670 -0.188053 -0.284887 0.000000 0.000000 1.000000
-0.247932 0.839709 0.032544 0.000000 0.000000 1.000000
0.089575 -0.192584 -0.171305 0.000000 0.000000 1.000000
-0.000063 0.518758 0.428190 0.000000 0.000000 1.000000
0.000000 0.204067 -0.209812 0.000000 0.000000 1.000000
-0.258089 0.475393 0.338902 0.000000 0.000000 1.000000
-0.275252 0.250843 -0.059648 0.000000 0.000000 1.000000
0.181611 0.424048 -0.226129 0.000000 0.000000 1.000000
-0.029809 -0.361102 0.080903 0.000000 0.000000 1.000000
-0.036707 -0.363879 0.101893 0.000000 0.000000 1.000000
-0.204616 -0.184497 0.062261 0.000000 0.000000 1.000000
0.068885 0.491877 0.428403 0.000000 0.000000 1.000000
-0.274440 0.510571 0.340196 0.000000 0.000000 1.000000
0.064176 0.473290 0.419013 0.000000 0.000000 1.000000
0.186377 0.631562 0.404703 0.000000 0.000000 1.000000
0.199781 0.627205 0.400678 0.000000 0.000000 1.000000
0.178593 -0.162940 0.020325 0.000000 0.000000 1.000000
0.058601 1.128772 0.330959 0.000000 0.000000 1.000000
0.097630 0.960558 0.010816 0.000000 0.000000 1.000000
-0.021897 -0.214175 -0.258350 0.000000 0.000000 1.000000
-0.075357 0.728660 -0.080954 0.000000 0.000000 1.000000
-0.217652 -0.049727 -0.078844 0.000000 0.000000 1.000000
0.053353 0.477959 0.426176 0.000000 0.000000 1.000000
0.063571 0.463772 0.423016 0.000000 0.000000 1.000000
-0.549175 0.425411 -0.112867 0.000000 0.000000 1.000000
-0.306511 1.165308 -0.009530 0.000000 0.000000 1.000000
-0.027472 0.981182 0.137347 0.000000 0.000000 1.000000
0.048643 0.493548 0.428118 0.000000 0.000000 1.000000
0.221162 0.957737 -0.062986 0.000000 0.000000 1.000000
0.041912 -0.297317 0.020676 0.000000 0.000000 1.000000
0.032205 -0.382687 0.087324 0.000000 0.000000 1.000000
-0.033432 -0.362992 0.094705 0.000000 0.000000 1.000000
-0.353912 0.739906 -0.026454 0.000000 0.000000 1.000000
-0.026903 -0.352708 0.017184 0.000000 0.000000 1.000000
-0.124849 0.520796 -0.020235 0.000000 0.000000 1.000000
0.190931 -0.108475 0.031285 0.000000 0.000000 1.000000
-0.018409 1.036917 0.433855 0.000000 0.000000 1.000000
0.193695 0.580844 0.409196 0.000000 0.000000 1.000000
-0.096401 0.104158 0.118587 0.000000 0.000000 1.000000
0.259688 0.511068 0.374330 0.000000 0.000000 1.000000
-0.113706 1.044170 0.014092 0.000000 0.000000 1.000000
0.000839 0.566649 0.435317 0.000000 0.000000 1.000000
0.387689 0.928003 0.049521 0.000000 0.000000 1.000000
0.153392 0.043435 0.008668 0.000000 0.000000 1.000000
0.082673 -0.339887 0.107015 0.000000 0.000000 1.000000
-0.319867 0.231975 -0.018887 0.000000 0.000000 1.000000
-0.176187 -0.073428 0.027071 0.000000 0.000000 1.000000
0.185350 0.529095 0.400714 0.000000 0.000000 1.000000
0.161886 0.538879 0.386652 0.000000 0.000000 1.000000
-0.282691 0.026153 0.015986 0.000000 0.000000 1.000000
-0.113157 1.197880 0.248669 0.000000 0.000000 1.000000
0.133981 -0.182700 0.151743 0.000000 0.000000 1.000000
0.211089 -0.167401 -0.031574 0.000000 0.000000 1.000000
-0.124243 0.120532 0.080189 0.000000 0.000000 1.000000
-0.077752 1.000201 0.005703 0.000000 0.000000 1.000000
0.138063 0.380417 0.016522 0.000000 0.000000 1.000000
-0.010295 0.505827 0.429181 0.000000 0.000000 1.000000
-0.239485 -0.150313 -0.082286 0.000000 0.000000 1.000000
0.187204 -0.062859 0.019327 0.000000 0.000000 1.000000
0.066968 0.478159 0.419823 0.000000 0.000000 1.000000
-0.219799 0.551553 0.013092 0.000000 0.000000 1.000000
-0.150052 0.042329 0.051162 0.000000 0.000000 1.000000
0.127698 0.787023 0.081759 0.000000 0.000000 1.000000
-0.030571 -0.253307 -0.010660 0.000000 0.000000 1.000000
-0.225990 0.583317 0.391095 0.000000 0.000000 1.000000
0.064128 0.490572 0.423181 0.000000 0.000000 1.000000
0.055728 -0.093727 -0.334517 0.000000 0.000000 1.000000
-0.078173 0.534344 0.432073 0.000000 0.000000 1.000000
0.000000 1.306159 0.274145 0.000000 0.000000 1.000000
0.266975 1.143773 0.000014 0.000000 0.000000 1.000000
-0.438670 0.539877 -0.128651 0.000000 0.000000 1.000000
-0.238419 -0.185660 -0.075175 0.000000 0.000000 1.000000
-0.178027 1.183216 -0.082878 0.000000 0.000000 1.000000
0.354309 0.271507 -0.232898 0.000000 0.000000 1.000000
-0.025001 -0.201327 -0.164366 0.000000 0.000000 1.000000
0.218522 -0.113545 0.079613 0.000000 0.000000 1.000000
-0.296298 0.480556 0.338177 0.000000 0.000000 1.000000
-0.002935 0.547888 0.426666 0.000000 0.000000 1.000000
0.213959 -0.145834 0.079840 0.000000 0.000000 1.000000
0.168475 0.637845 0.394944 0.000000 0.000000 1.000000
0.037142 -0.389444 0.023834 0.000000 0.000000 1.000000
-0.001622 0.565838 0.430624 0.000000 0.000000 1.000000
0.006477 0.561495 0.431725 0.000000 0.000000 1.000000
-0.261191 0.773903 0.004899 0.000000 0.000000 1.000000
0.074464 -0.320516 0.073276 0.000000 0.000000 1.000000
0.193929 0.639777 0.402633 0.000000 0.000000 1.000000
0.206777 0.473849 0.382650 0.000000 0.000000 1.000000
-0.012403 -0.043801 -0.377609 0.000000 0.000000 1.000000
-0.135555 0.225249 -0.046168 0.000000 0.000000 1.000000
-0.103790 0.197021 -0.030390 0.000000 0.000000 1.000000
-0.006851 0.560080 0.433219 0.000000 0.000000 1.000000
0.182903 -0.156697 0.012517 0.000000 0.000000 1.000000
0.182610 -0.170659 0.015972 0.000000 0.000000 1.000000
0.040108 0.951616 -0.233702 0.000000 0.000000 1.000000
-0.197728 0.497485 0.380804 0.000000 0.000000 1.000000
0.372977 0.249745 -0.022467 0.000000 0.000000 1.000000
0.190334 0.634076 0.406177 0.000000 0.000000 1.000000
-0.010576 1.063401 0.422931 0.000000 0.000000 1.000000
-0.201483 0.299123 -0.229189 0.000000 0.000000 1.000000
0.185524 0.629654 0.402458 0.000000 0.000000 1.000000
-0.151873 1.111331 0.119326 0.000000 0.000000 1.000000
0.199375 0.634327 0.399033 0.000000 0.000000 1.000000
-0.098729 -0.370305 -0.080298 0.000000 0.000000 1.000000
0.006098 0.561207 0.438587 0.000000 0.000000 1.000000
0.004436 -0.137167 -0.305322 0.000000 0.000000 1.000000
0.040731 0.501826 0.434595 0.000000 0.000000 1.000000
0.061092 0.769989 -0.396481 0.000000 0.000000 1.000000
0.176591 0.531636 0.369318 0.000000 0.000000 1.000000
-0.174253 -0.178721 -0.040418 0.000000 0.000000 1.000000
0.020392 -0.177828 -0.286939 0.000000 0.000000 1.000000
0.135004 0.140717 -0.088920 0.000000 0.000000 1.000000
-0.040108 0.358354 -0.374505 0.000000 0.000000 1.000000
-0.072216 0.531489 0.427112 0.000000 0.000000 1.000000
-0.424004 0.605052 0.022200 0.000000 0.000000 1.000000
-0.120769 -0.223267 0.126100 0.000000 0.000000 1.000000
-0.194036 -0.200779 0.044987 0.000000 0.000000 1.000000
-0.172320 0.520974 0.390303 0.000000 0.000000 1.000000
-0.409187 0.808490 0.096304 0.000000 0.000000 1.000000
0.201557 0.818623 -0.391466 0.000000 0.000000 1.000000
0.065803 0.507997 0.429136 0.000000 0.000000 1.000000
0.008883 0.529002 0.435716 0.000000 0.000000 1.000000
-0.005794 -0.137880 -0.323559 0.000000 0.000000 1.000000
-0.118280 -0.363634 0.120205 0.000000 0.000000 1.000000
0.006548 -0.132329 -0.316249 0.000000 0.000000 1.000000
-0.291668 0.511456 0.353738 0.000000 0.000000 1.000000
0.043544 -0.171155 -0.274317 0.000000 0.000000 1.000000
-0.221314 0.538940 0.384700 0.000000 0.000000 1.000000
0.206506 -0.131555 -0.062442 0.000000 0.000000 1.000000
-0.003627 0.548128 0.438751 0.000000 0.000000 1.000000
0.425474 0.221004 -0.195992 0.000000 0.000000 1.000000
-0.139597 0.215420 -0.182654 0.000000 0.000000 1.000000
0.145119 -0.338412 0.070095 0.000000 0.000000 1.000000
0.195875 0.188846 -0.082196 0.000000 0.000000 1.000000
0.216266 0.055190 -0.077012 0.000000 0.000000 1.000000
-0.285742 0.499552 0.331760 0.000000 0.000000 1.000000
-0.030596 1.139320 0.338094 0.000000 0.000000 1.000000
0.079867 0.530130 0.431002 0.000000 0.000000 1.000000
0.105802 0.820291 0.067376 0.000000 0.000000 1.000000
0.060004 0.512797 0.434866 0.000000 0.000000 1.000000
-0.326819 -0.165992 -0.062495 0.000000 0.000000 1.000000
0.469339 0.471743 -0.007368 0.000000 0.000000 1.000000
-0.458791 0.504166 -0.175594 0.000000 0.000000 1.000000
-0.153175 0.188438 -0.111353 0.000000 0.000000 1.000000
-0.175327 -0.080420 0.055850 0.000000 0.000000 1.000000
-0.021871 1.167294 0.293902 0.000000 0.000000 1.000000
0.199204 0.561886 0.371982 0.000000 0.000000 1.000000
-0.074814 0.935425 0.319416 0.000000 0.000000 1.000000
-0.185944 0.634404 0.400890 0.000000 0.000000 1.000000
-0.155145 0.062647 0.052053 0.000000 0.000000 1.000000
0.010859 -0.188931 -0.147685 0.000000 0.000000 1.000000
0.201259 -0.135698 -0.041295 0.000000 0.000000 1.000000
-0.409429 0.501840 0.001583 0.000000 0.000000 1.000000
-0.198478 -0.175260 -0.009769 0.000000 0.000000 1.000000
-0.171391 0.566581 0.377788 0.000000 0.000000 1.000000
0.001350 0.515986 0.429397 0.000000 0.000000 1.000000
0.105734 1.131681 -0.009282 0.000000 0.000000 1.000000
0.152866 0.329178 -0.219810 0.000000 0.000000 1.000000
0.186524 0.556241 -0.000936 0.000000 0.000000 1.000000
0.161622 0.555179 0.385392 0.000000 0.000000 1.000000
-0.020214 0.501571 0.421953 0.000000 0.000000 1.000000
-0.227887 0.422799 -0.413361 0.000000 0.000000 1.000000
0.071813 0.813546 0.393780 0.000000 0.000000 1.000000
0.160837 -0.192942 0.092396 0.000000 0.000000 1.000000
-0.198442 0.799722 0.073946 0.000000 0.000000 1.000000
0.193552 -0.120463 0.053849 0.000000 0.000000 1.000000
0.335577 0.529772 -0.239700 0.000000 0.000000 1.000000
-0.415808 0.497655 -0.043621 0.000000 0.000000 1.000000
-0.259421 -0.173009 0.083601 0.000000 0.000000 1.000000
-0.009247 -0.034366 -0.365371 0.000000 0.000000 1.000000
-0.006789 0.562681 0.435057 0.000000 0.000000 1.000000
0.185811 1.149495 -0.061880 0.000000 0.000000 1.000000
-0.088032 1.049175 0.247882 0.000000 0.000000 1.000000
0.043182 -0.100632 -0.315390 0.000000 0.000000 1.000000
0.026489 -0.204217 -0.171090 0.000000 0.000000 1.000000
0.186024 -0.176091 0.008729 0.000000 0.000000 1.000000
0.004314 -0.125075 -0.242316 0.000000 0.000000 1.000000
-0.012834 0.573704 0.434191 0.000000 0.000000 1.000000
0.010713 -0.197207 -0.144320 0.000000 0.000000 1.000000
0.006766 0.552822 0.436439 0.000000 0.000000 1.000000
0.044075 0.495550 0.429848 0.000000 0.000000 1.000000
0.004101 0.089557 0.150935 0.000000 0.000000 1.000000
0.141619 -0.368237 0.110835 0.000000 0.000000 1.000000
-0.008143 -0.097145 -0.381963 0.000000 0.000000 1.000000
-0.233653 0.471903 0.375812 0.000000 0.000000 1.000000
0.063410 1.117098 0.342083 0.000000 0.000000 1.000000
0.235840 0.700462 -0.356091 0.000000 0.000000 1.000000
0.338746 0.849508 0.030291 0.000000 0.000000 1.000000
0.003738 0.564655 0.438814 0.000000 0.000000 1.000000
0.037749 -0.093613 -0.283709 0.000000 0.000000 1.000000
0.018921 0.150162 -0.125127 0.000000 0.000000 1.000000
-0.267964 0.876265 -0.189514 0.000000 0.000000 1.000000
0.036647 -0.250120 0.079118 0.000000 0.000000 1.000000
0.216385 0.525962 0.378990 0.000000 0.000000 1.000000
-0.158698 -0.370937 0.068408 0.000000 0.000000 1.000000
0.028349 1.387591 -0.019630 0.000000 0.000000 1.000000
-0.117527 1.026901 0.323805 0.000000 0.000000 1.000000
-0.035197 -0.152533 -0.357003 0.000000 0.000000 1.000000
-0.022136 1.013962 -0.013942 0.000000 0.000000 1.000000
0.071151 0.924408 0.438019 0.000000 0.000000 1.000000
0.087649 1.236626 -0.101786 0.000000 0.000000 1.000000
0.288655 0.018884 -0.006566 0.000000 0.000000 1.000000
0.292151 0.510948 0.339619 0.000000 0.000000 1.000000
0.398663 0.645669 0.151149 0.000000 0.000000 1.000000
-0.059509 0.227493 0.244729 0.000000 0.000000 1.000000
-0.026268 0.498522 0.423476 0.000000 0.000000 1.000000
-0.007268 1.409315 0.164408 0.000000 0.000000 1.000000
0.135706 -0.290673 -0.037834 0.000000 0.000000 1.000000
0.207373 0.611628 0.371290 0.000000 0.000000 1.000000
-0.033429 -0.376092 -0.039399 0.000000 0.000000 1.000000
0.167742 1.160931 -0.082770 0.000000 0.000000 1.000000
0.024626 -0.371275 -0.003456 0.000000 0.000000 1.000000
0.295784 0.502518 0.335087 0.000000 0.000000 1.000000
-0.213539 0.645644 0.380089 0.000000 0.000000 1.000000
-0.060047 -0.363660 0.118707 0.000000 0.000000 1.000000
0.016377 -0.164666 -0.289477 0.000000 0.000000 1.000000
-0.158883 -0.363157 0.004992 0.000000 0.000000 1.000000
-0.104806 0.829113 0.014037 0.000000 0.000000 1.000000
0.103938 0.980938 0.130064 0.000000 0.000000 1.000000
0.061485 0.519235 0.429087 0.000000 0.000000 1.000000
-0.169226 0.611513 0.377090 0.000000 0.000000 1.000000
-0.191583 -0.085313 -0.022024 0.000000 0.000000 1.000000
-0.101287 1.289523 0.259266 0.000000 0.000000 1.000000
-0.202813 1.325993 0.099860 0.000000 0.000000 1.000000
0.043352 -0.096671 -0.276448 0.000000 0.000000 1.000000
-0.184886 -0.134476 0.031319 0.000000 0.000000 1.000000
0.195120 0.624252 0.404554 0.000000 0.000000 1.000000
0.098790 1.057119 0.355159 0.000000 0.000000 1.000000
0.198448 0.485051 0.374928 0.000000 0.000000 1.000000
-0.204487 -0.198180 0.019906 0.000000 0.000000 1.000000
-0.086668 0.416230 -0.174654 0.000000 0.000000 1.000000
-0.595883 0.759551 -0.219575 0.000000 0.000000 1.000000
-0.461255 0.986984 -0.024209 0.000000 0.000000 1.000000
0.042968 -0.345893 0.095228 0.000000 0.000000 1.000000
0.458492 1.179507 -0.071971 0.000000 0.000000 1.000000
0.067359 0.498834 0.430031 0.000000 0.000000 1.000000
0.025471 -0.183353 -0.353180 0.000000 0.000000 1.000000
-0.006973 0.559873 0.434644 0.000000 0.000000 1.000000
0.150249 -0.387031 0.063900 0.000000 0.000000 1.000000
-0.145398 -0.374373 0.108220 0.000000 0.000000 1.000000
0.031212 0.511211 0.426188 0.000000 0.000000 1.000000
0.190295 0.567475 -0.021668 0.000000 0.000000 1.000000
0.283714 0.504995 0.024361 0.000000 0.000000 1.000000
0.552299 1.113123 -0.130170 0.000000 0.000000 1.000000
-0.248655 0.480996 0.375095 0.000000 0.000000 1.000000
0.429505 1.025642 -0.028288 0.000000 0.000000 1.000000
0.051599 0.484028 0.421706 0.000000 0.000000 1.000000
-0.004552 0.563272 0.439746 0.000000 0.000000 1.000000
-0.174876 0.226926 -0.199075 0.000000 0.000000 1.000000
-0.606028 0.892281 -0.155740 0.000000 0.000000 1.000000
0.367988 0.763846 -0.143806 0.000000 0.000000 1.000000
-0.081666 0.942905 0.329183 0.000000 0.000000 1.000000
-0.084420 1.046499 0.239086 0.000000 0.000000 1.000000
0.099315 1.363212 0.218793 0.000000 0.000000 1.000000
-0.000549 -0.110124 -0.381340 0.000000 0.000000 1.000000
0.062981 0.479101 0.424616 0.000000 0.000000 1.000000
-0.073712 -0.236751 -0.114184 0.000000 0.000000 1.000000
-0.007268 1.409315 0.164408 0.000000 0.000000 1.000000
0.010289 -0.136976 -0.317252 0.000000 0.000000 1.000000
-0.063295 1.128384 0.325727 0.000000 0.000000 1.000000
0.217060 -0.177884 0.061176 0.000000 0.000000 1.000000
-0.277421 0.860723 0.009563 0.000000 0.000000 1.000000
-0.007863 -0.188283 -0.146444 0.000000 0.000000 1.000000
0.188779 0.590684 0.374391 0.000000 0.000000 1.000000
0.004617 0.564965 0.431372 0.000000 0.000000 1.000000
-0.085768 0.879732 0.003058 0.000000 0.000000 1.000000
0.072248 0.529803 0.424868 0.000000 0.000000 1.000000
0.067901 0.526691 0.430912 0.000000 0.000000 1.000000
0.196158 0.623940 0.403847 0.000000 0.000000 1.000000
-0.109891 -0.273908 -0.064180 0.000000 0.000000 1.000000
-0.067333 -0.310098 0.064380 0.000000 0.000000 1.000000
0.422009 0.848864 -0.025614 0.000000 0.000000 1.000000
0.171770 0.056921 0.064015 0.000000 0.000000 1.000000
0.010302 0.156579 0.105897 0.000000 0.000000 1.000000
0.386404 0.701891 -0.056767 0.000000 0.000000 1.000000
0.193200 -0.087205 0.037363 0.000000 0.000000 1.000000
-0.201354 0.475542 0.377796 0.000000 0.000000 1.000000
-0.189325 0.512255 0.375148 0.000000 0.000000 1.000000
0.211991 1.062636 0.139099 0.000000 0.000000 1.000000
0.374561 0.568532 -0.150123 0.000000 0.000000 1.000000
-0.498434 0.976489 -0.036369 0.000000 0.000000 1.000000
0.461657 0.470968 -0.029419 0.000000 0.000000 1.000000
0.002166 0.565790 0.436962 0.000000 0.000000 1.000000
0.094252 0.828310 0.301147 0.000000 0.000000 1.000000
-0.342750 0.722219 0.086888 0.000000 0.000000 1.000000
-0.047624 -0.128410 -0.283172 0.000000 0.000000 1.000000
0.008283 -0.093184 -0.255873 0.000000 0.000000 1.000000
-0.097455 1.090274 0.324315 0.000000 0.000000 1.000000
-0.050520 0.909811 0.326458 0.000000 0.000000 1.000000
0.103925 -0.388160 0.115291 0.000000 0.000000 1.000000
-0.117657 -0.379662 -0.074020 0.000000 0.000000 1.000000
0.416243 0.191649 -0.120367 0.000000 0.000000 1.000000
-0.076026 0.517937 0.427305 0.000000 0.000000 1.000000
0.130846 -0.357982 -0.063809 0.000000 0.000000 1.000000
-0.081901 0.382086 -0.014639 0.000000 0.000000 1.000000
0.007747 -0.135651 -0.320957 0.000000 0.000000 1.000000
-0.002005 0.566088 0.431794 0.000000 0.000000 1.000000
-0.454318 0.882218 0.112900 0.000000 0.000000 1.000000
0.253859 0.519153 0.369147 0.000000 0.000000 1.000000
0.278735 0.477493 0.331291 0.000000 0.000000 1.000000
0.153497 0.552216 -0.044028 0.000000 0.000000 1.000000
0.197303 1.340872 0.070726 0.000000 0.000000 1.000000
-0.231694 1.208648 -0.027632 0.000000 0.000000 1.000000
-0.221453 0.537042 0.381712 0.000000 0.000000 1.000000
-0.002425 0.534399 0.438315 0.000000 0.000000 1.000000
0.006908 0.560510 0.433647 0.000000 0.000000 1.000000
0.027290 -0.055201 -0.369740 0.000000 0.000000 1.000000
0.158533 -0.225643 0.000198 0.000000 0.000000 1.000000
-0.056880 1.343684 0.248044 0.000000 0.000000 1.000000
-0.340984 0.583333 -0.048280 0.000000 0.000000 1.000000
0.081573 -0.224410 -0.139604 0.000000 0.000000 1.000000
0.067038 0.524159 0.433162 0.000000 0.000000 1.000000
-0.221528 0.593883 -0.201719 0.000000 0.000000 1.000000
0.387157 0.414802 -0.236062 0.000000 0.000000 1.000000
0.239031 0.482873 0.347268 0.000000 0.000000 1.000000
0.188529 0.635267 0.405248 0.000000 0.000000 1.000000
0.071899 0.531555 0.428035 0.000000 0.000000 1.000000
-0.063813 0.498060 -0.422737 0.000000 0.000000 1.000000
-0.082690 1.018662 -0.014015 0.000000 0.000000 1.000000
0.076104 1.044115 0.393771 0.000000 0.000000 1.000000
0.175593 0.231681 -0.201968 0.000000 0.000000 1.000000
0.089131 -0.325609 0.080165 0.000000 0.000000 1.000000
0.407714 0.558426 -0.056970 0.000000 0.000000 1.000000
-0.278735 0.477493 0.331291 0.000000 0.000000 1.000000
0.207050 -0.166204 -0.025866 0.000000 0.000000 1.000000
-0.245672 0.510903 0.353649 0.000000 0.000000 1.000000
-0.058263 -0.360073 -0.068232 0.000000 0.000000 1.000000
0.151494 -0.233964 -0.031600 0.000000 0.000000 1.000000
-0.440508 0.936276 0.112145 0.000000 0.000000 1.000000
-0.194721 0.747434 -0.096596 0.000000 0.000000 1.000000
0.006429 -0.060968 -0.383034 0.000000 0.000000 1.000000
-0.001432 0.541320 0.425150 0.000000 0.000000 1.000000
-0.097379 -0.295796 0.066335 0.000000 0.000000 1.000000
0.158296 0.003717 -0.098453 0.000000 0.000000 1.000000
0.001832 -0.244873 -0.033271 0.000000 0.000000 1.000000
-0.030145 1.079646 -0.096254 0.000000 0.000000 1.000000
-0.000389 0.534178 0.423680 0.000000 0.000000 1.000000
0.060121 0.508043 0.435488 0.000000 0.000000 1.000000
0.136258 0.142644 0.053737 0.000000 0.000000 1.000000
0.031999 0.938283 0.239770 0.000000 0.000000 1.000000
-0.093329 0.992287 0.386694 0.000000 0.000000 1.000000
0.335932 1.094718 -0.009688 0.000000 0.000000 1.000000
-0.067965 1.406102 0.026938 0.000000 0.000000 1.000000
0.280271 1.054586 0.130471 0.000000 0.000000 1.000000
-0.004069 -0.223732 -0.157269 0.000000 0.000000 1.000000
0.060541 0.468471 0.419688 0.000000 0.000000 1.000000
0.245742 -0.159681 0.085236 0.000000 0.000000 1.000000
0.001229 -0.169860 -0.367356 0.000000 0.000000 1.000000
-0.199750 0.626052 0.402594 0.000000 0.000000 1.000000
0.213774 0.522395 0.021142 0.000000 0.000000 1.000000
-0.068247 1.411930 0.082207 0.000000 0.000000 1.000000
0.362400 0.864625 -0.175784 0.000000 0.000000 1.000000
0.001638 -0.098410 -0.251832 0.000000 0.000000 1.000000
-0.404178 0.870418 -0.056979 0.000000 0.000000 1.000000
0.201228 0.634486 0.401321 0.000000 0.000000 1.000000
0.024158 -0.207715 -0.234334 0.000000 0.000000 1.000000
-0.287991 0.011844 0.030847 0.000000 0.000000 1.000000
0.066404 0.465427 0.424627 0.000000 0.000000 1.000000
-0.361419 1.005430 -0.352666 0.000000 0.000000 1.000000
0.124774 1.389254 0.012448 0.000000 0.000000 1.000000
0.368481 0.574247 -0.037428 0.000000 0.000000 1.000000
-0.104844 0.187629 -0.076432 0.000000 0.000000 1.000000
0.022119 -0.202612 -0.269424 0.000000 0.000000 1.000000
0.061832 0.477141 0.422257 0.000000 0.000000 1.000000
0.119256 0.948427 0.208354 0.000000 0.000000 1.000000
-0.099172 1.225750 0.263453 0.000000 0.000000 1.000000
0.086853 -0.278389 -0.066495 0.000000 0.000000 1.000000
-0.003866 0.536040 0.426904 0.000000 0.000000 1.000000
0.234604 -0.221303 -0.011308 0.000000 0.000000 1.000000
0.162675 0.548904 0.400411 0.000000 0.000000 1.000000
0.069604 -0.388841 0.111673 0.000000 0.000000 1.000000
0.173824 0.644505 0.392655 0.000000 0.000000 1.000000
0.511177 0.405738 -0.136248 0.000000 0.000000 1.000000
-0.222638 0.593052 0.379303 0.000000 0.000000 1.000000
-0.507056 0.787521 -0.009371 0.000000 0.000000 1.000000
0.224516 1.309995 0.027247 0.000000 0.000000 1.000000
-0.148229 -0.017473 0.136397 0.000000 0.000000 1.000000
-0.050354 -0.152102 -0.291382 0.000000 0.000000 1.000000
-0.190848 0.624584 0.400809 0.000000 0.000000 1.000000
-0.014564 -0.163483 -0.312098 0.000000 0.000000 1.000000
0.069010 0.472255 0.423799 0.000000 0.000000 1.000000
-0.043370 -0.388487 0.088133 0.000000 0.000000 1.000000
-0.141179 1.073035 0.024407 0.000000 0.000000 1.000000
0.131270 0.168682 0.018667 0.000000 0.000000 1.000000
0.213510 0.547077 0.397275 0.000000 0.000000 1.000000
0.230357 1.201111 0.031459 0.000000 0.000000 1.000000
0.019662 -0.101528 -0.254242 0.000000 0.000000 1.000000
-0.344686 0.842263 -0.061032 0.000000 0.000000 1.000000
-0.064527 -0.330034 0.081065 0.000000 0.000000 1.000000
-0.153355 0.247256 -0.233529 0.000000 0.000000 1.000000
-0.005201 0.552269 0.429137 0.000000 0.000000 1.000000
-0.383766 0.470767 -0.306080 0.000000 0.000000 1.000000
0.089077 0.190919 -0.076238 0.000000 0.000000 1.000000
0.130866 0.780774 0.361817 0.000000 0.000000 1.000000
0.045001 -0.148913 -0.267204 0.000000 0.000000 1.000000
-0.379122 0.809060 0.073946 0.000000 0.000000 1.000000
0.068734 0.467874 0.423200 0.000000 0.000000 1.000000
0.051027 0.480956 0.423398 0.000000 0.000000 1.000000
0.210350 0.547122 -0.174523 0.000000 0.000000 1.000000
-0.406065 0.233633 -0.212238 0.000000 0.000000 1.000000
0.027376 1.325991 0.263194 0.000000 0.000000 1.000000
0.065107 0.461542 0.422012 0.000000 0.000000 1.000000
0.204946 0.509552 0.380823 0.000000 0.000000 1.000000
-0.449459 0.966191 -0.038282 0.000000 0.000000 1.000000
0.056906 -0.388754 -0.049267 0.000000 0.000000 1.000000
0.088386 0.969492 0.413929 0.000000 0.000000 1.000000
0.456215 0.954095 -0.016508 0.000000 0.000000 1.000000
0.033841 0.985335 0.048181 0.000000 0.000000 1.000000
0.118603 -0.250683 -0.073186 0.000000 0.000000 1.000000
0.093069 0.424980 -0.179311 0.000000 0.000000 1.000000
0.141938 0.093506 0.071715 0.000000 0.000000 1.000000
-0.152467 0.026729 0.073100 0.000000 0.000000 1.000000
0.465508 0.511966 -0.144977 0.000000 0.000000 1.000000
0.189421 0.637209 0.404644 0.000000 0.000000 1.000000
-0.275178 0.541353 0.017782 0.000000 0.000000 1.000000
0.093469 0.964693 0.071984 0.000000 0.000000 1.000000
0.085613 1.394354 -0.000913 0.000000 0.000000 1.000000
0.144377 -0.242539 0.053206 0.000000 0.000000 1.000000
-0.229225 -0.190637 0.075190 0.000000 0.000000 1.000000
-0.143935 0.818182 0.103568 0.000000 0.000000 1.000000
0.126897 0.920152 0.116827 0.000000 0.000000 1.000000
-0.123356 1.112994 0.184079 0.000000 0.000000 1.000000
0.136923 -0.271315 0.038218 0.000000 0.000000 1.000000
0.278010 0.496832 0.332227 0.000000 0.000000 1.000000
-0.214584 0.611542 0.372921 0.000000 0.000000 1.000000
-0.355022 -0.144800 -0.003752 0.000000 0.000000 1.000000
0.068009 0.483442 0.421061 0.000000 0.000000 1.000000
0.264093 -0.242390 0.037843 0.000000 0.000000 1.000000
-0.039301 -0.353753 0.099099 0.000000 0.000000 1.000000
-0.003973 -0.038661 -0.380325 0.000000 0.000000 1.000000
-0.170481 -0.004081 -0.028414 0.000000 0.000000 1.000000
-0.192886 1.213803 -0.080413 0.000000 0.000000 1.000000
-0.190647 0.639464 0.401511 0.000000 0.000000 1.000000
-0.316433 0.325868 -0.242040 0.000000 0.000000 1.000000
0.063109 0.474827 0.419621 0.000000 0.000000 1.000000
-0.170053 1.180418 0.166905 0.000000 0.000000 1.000000
-0.246237 0.074253 0.003678 0.000000 0.000000 1.000000
0.184960 0.589032 -0.145198 0.000000 0.000000 1.000000
-0.203332 -0.199968 0.044379 0.000000 0.000000 1.000000
-0.181020 -0.167347 0.044067 0.000000 0.000000 1.000000
-0.159708 0.768857 -0.009506 0.000000 0.000000 1.000000
0.296892 0.798277 0.050577 0.000000 0.000000 1.000000
0.204536 0.615682 0.403099 0.000000 0.000000 1.000000
0.333685 0.867473 -0.077532 0.000000 0.000000 1.000000
-0.177622 0.086518 -0.081136 0.000000 0.000000 1.000000
-0.169846 -0.035735 -0.019393 0.000000 0.000000 1.000000
-0.103342 1.079341 0.182495 0.000000 0.000000 1.000000
-0.147484 1.079430 0.008668 0.000000 0.000000 1.000000
0.202742 -0.197758 0.016701 0.000000 0.000000 1.000000
-0.305051 0.471084 0.000462 0.000000 0.000000 1.000000
0.170603 0.640382 0.374083 0.000000 0.000000 1.000000
0.303708 -0.178494 -0.073246 0.000000 0.000000 1.000000
0.005449 0.564162 0.431498 0.000000 0.000000 1.000000
-0.166375 0.005013 -0.008249 0.000000 0.000000 1.000000
-0.044334 0.495865 0.427792 0.000000 0.000000 1.000000
0.183884 0.983563 0.091809 0.000000 0.000000 1.000000
-0.261896 0.518057 0.367379 0.000000 0.000000 1.000000
0.019423 -0.198886 -0.240907 0.000000 0.000000 1.000000
0.254886 0.808852 -0.284775 0.000000 0.000000 1.000000
-0.072972 -0.230223 0.139986 0.000000 0.000000 1.000000
0.280849 0.766232 0.289562 0.000000 0.000000 1.000000
-0.000748 0.560718 0.441806 0.000000 0.000000 1.000000
-0.134343 0.243002 -0.029002 0.000000 0.000000 1.000000
-0.198221 0.637708 0.399859 0.000000 0.000000 1.000000
0.038837 -0.068991 -0.359715 0.000000 0.000000 1.000000
-0.215659 -0.185484 -0.001799 0.000000 0.000000 1.000000
0.162575 -0.006131 -0.058410 0.000000 0.000000 1.000000
-0.242491 0.716035 0.078375 0.000000 0.000000 1.000000
-0.244604 -0.096359 -0.083541 0.000000 0.000000 1.000000
0.055778 0.482888 0.421530 0.000000 0.000000 1.000000
-0.129208 -0.362822 0.116655 0.000000 0.000000 1.000000
-0.066416 1.375206 0.217950 0.000000 0.000000 1.000000
-0.129789 1.330564 0.225819 0.000000 0.000000 1.000000
-0.135344 1.042602 0.103666 0.000000 0.000000 1.000000
0.018057 -0.248128 0.035739 0.000000 0.000000 1.000000
0.068479 0.499872 0.429659 0.000000 0.000000 1.000000
0.457561 0.252001 -0.079729 0.000000 0.000000 1.000000
0.036490 -0.346599 0.082678 0.000000 0.000000 1.000000
0.010940 -0.137508 -0.315123 0.000000 0.000000 1.000000
0.167597 0.010905 0.020275 0.000000 0.000000 1.000000
-0.032689 0.934018 0.246768 0.000000 0.000000 1.000000
-0.007486 -0.094878 -0.254696 0.000000 0.000000 1.000000
-0.240268 0.473033 -0.153839 0.000000 0.000000 1.000000
0.193903 0.637097 0.405481 0.000000 0.000000 1.000000
-0.212892 -0.158667 0.076227 0.000000 0.000000 1.000000
0.196766 0.627069 0.406040 0.000000 0.000000 1.000000
-0.255186 -0.072349 -0.083015 0.000000 0.000000 1.000000
0.131235 -0.335061 0.084177 0.000000 0.000000 1.000000
0.051449 0.488776 0.423084 0.000000 0.000000 1.000000
0.144752 1.384141 0.076934 0.000000 0.000000 1.000000
-0.487009 0.407124 -0.199294 0.000000 0.000000 1.000000
0.129184 1.391567 0.036022 0.000000 0.000000 1.000000
-0.025448 0.502086 0.419218 0.000000 0.000000 1.000000
0.000000 -0.176865 -0.311662 0.000000 0.000000 1.000000
-0.150642 -0.238775 0.030951 0.000000 0.000000 1.000000
-0.006891 0.552840 0.431114 0.000000 0.000000 1.000000
0.467576 0.861125 -0.029856 0.000000 0.000000 1.000000
0.067815 0.460306 0.421633 0.000000 0.000000 1.000000
0.210224 0.520579 0.382147 0.000000 0.000000 1.000000
-0.224707 1.251076 -0.131107 0.000000 0.000000 1.000000
0.137461 -0.339417 0.087569 0.000000 0.000000 1.000000
-0.392028 0.377254 -0.160272 0.000000 0.000000 1.000000
0.148926 -0.377167 0.102768 0.000000 0.000000 1.000000
-0.048785 -0.343424 0.098429 0.000000 0.000000 1.000000
0.099657 0.911678 0.320143 0.000000 0.000000 1.000000
-0.299110 0.489049 0.335948 0.000000 0.000000 1.000000
0.018486 -0.236844 0.121368 0.000000 0.000000 1.000000
-0.191714 0.242920 0.194294 0.000000 0.000000 1.000000
0.104884 1.052487 0.347448 0.000000 0.000000 1.000000
-0.045982 -0.291771 -0.032160 0.000000 0.000000 1.000000
-0.548406 1.113796 -0.123595 0.000000 0.000000 1.000000
0.188197 0.625377 0.403504 0.000000 0.000000 1.000000
-0.055624 0.997402 0.013266 0.000000 0.000000 1.000000
-0.017529 -0.184018 -0.168428 0.000000 0.000000 1.000000
0.067194 0.469934 0.418602 0.000000 0.000000 1.000000
-0.188959 0.625178 0.404150 0.000000 0.000000 1.000000
0.037598 1.137810 0.335941 0.000000 0.000000 1.000000
-0.092244 0.988521 0.266315 0.000000 0.000000 1.000000
0.050811 0.991593 0.434844 0.000000 0.000000 1.000000
0.149321 0.051461 -0.039161 0.000000 0.000000 1.000000
-0.097801 -0.339325 0.106348 0.000000 0.000000 1.000000
-0.233175 0.467346 0.368818 0.000000 0.000000 1.000000
-0.183388 0.569093 -0.103775 0.000000 0.000000 1.000000
-0.198569 -0.112535 -0.047912 0.000000 0.000000 1.000000
-0.192257 0.561880 0.372090 0.000000 0.000000 1.000000
0.055931 0.846483 0.294716 0.000000 0.000000 1.000000
-0.251428 -0.052902 -0.082532 0.000000 0.000000 1.000000
-0.171028 0.633514 0.372830 0.000000 0.000000 1.000000
0.285570 0.750274 -0.294273 0.000000 0.000000 1.000000
0.373011 0.199702 -0.201179 0.000000 0.000000 1.000000
-0.106684 0.357329 -0.198874 0.000000 0.000000 1.000000
-0.541765 0.928527 -0.066335 0.000000 0.000000 1.000000
0.233393 1.096639 0.121771 0.000000 0.000000 1.000000
0.189525 0.624489 0.403392 0.000000 0.000000 1.000000
-0.260246 0.637717 -0.228976 0.000000 0.000000 1.000000
-0.023149 -0.047387 -0.349207 0.000000 0.000000 1.000000
0.017244 0.577886 0.437230 0.000000 0.000000 1.000000
-0.036019 -0.319455 0.008652 0.000000 0.000000 1.000000
0.027387 -0.373257 -0.020176 0.000000 0.000000 1.000000
0.419910 1.071229 0.004049 0.000000 0.000000 1.000000
0.339455 0.984694 0.048997 0.000000 0.000000 1.000000
0.196086 -0.198253 0.054175 0.000000 0.000000 1.000000
-0.519125 1.062871 -0.313023 0.000000 0.000000 1.000000
0.070547 1.071284 0.379730 0.000000 0.000000 1.000000
0.373412 0.832750 -0.066677 0.000000 0.000000 1.000000
-0.010450 -0.229350 -0.252410 0.000000 0.000000 1.000000
-0.022455 -0.054723 -0.374855 0.000000 0.000000 1.000000
-0.001933 -0.175505 -0.254919 0.000000 0.000000 1.000000
0.068520 0.469745 0.424147 0.000000 0.000000 1.000000
0.151363 0.515983 0.009436 0.000000 0.000000 1.000000
0.321542 0.517419 0.017601 0.000000 0.000000 1.000000
0.235233 0.844866 0.270357 0.000000 0.000000 1.000000
-0.202035 0.960002 0.018538 0.000000 0.000000 1.000000
0.059590 0.479663 0.422575 0.000000 0.000000 1.000000
0.400627 0.667781 -0.097011 0.000000 0.000000 1.000000
-0.269183 0.806615 0.044962 0.000000 0.000000 1.000000
0.039317 1.411883 0.144273 0.000000 0.000000 1.000000
-0.379164 0.220055 -0.045799 0.000000 0.000000 1.000000
-0.075972 -0.372476 0.123162 0.000000 0.000000 1.000000
-0.211460 -0.161272 0.071528 0.000000 0.000000 1.000000
-0.076030 0.076856 -0.157979 0.000000 0.000000 1.000000
0.187642 0.635522 0.404628 0.000000 0.000000 1.000000
-0.087174 1.169888 -0.049001 0.000000 0.000000 1.000000
0.068515 0.462239 0.421670 0.000000 0.000000 1.000000
0.359289 0.827710 -0.004987 0.000000 0.000000 1.000000
0.218959 0.101670 -0.022584 0.000000 0.000000 1.000000
-0.191144 1.193833 -0.077891 0.000000 0.000000 1.000000
-0.140832 0.926067 -0.336715 0.000000 0.000000 1.000000
0.021587 -0.190850 -0.279097 0.000000 0.000000 1.000000
0.051475 -0.343161 0.100527 0.000000 0.000000 1.000000
-0.133798 -0.277326 -0.041398 0.000000 0.000000 1.000000
-0.342186 0.661858 -0.264163 0.000000 0.000000 1.000000
0.117633 0.879217 0.114876 0.000000 0.000000 1.000000
0.068858 0.465955 0.420700 0.000000 0.000000 1.000000
0.099172 0.965899 0.295779 0.000000 0.000000 1.000000
0.182647 0.518387 0.368536 0.000000 0.000000 1.000000
-0.632402 0.533701 -0.093696 0.000000 0.000000 1.000000
0.007857 0.868036 0.297605 0.000000 0.000000 1.000000
0.000000 0.564648 0.439691 0.000000 0.000000 1.000000
0.132451 1.078817 -0.060208 0.000000 0.000000 1.000000
-0.150858 -0.213309 0.092136 0.000000 0.000000 1.000000
0.299607 -0.230489 -0.051127 0.000000 0.000000 1.000000
0.156533 0.937599 -0.203786 0.000000 0.000000 1.000000
-0.028822 -0.363057 0.078712 0.000000 0.000000 1.000000
-0.293597 0.260823 0.000000 0.000000 0.000000 1.000000
-0.225751 0.590625 0.382645 0.000000 0.000000 1.000000
-0.043139 0.506904 0.419073 0.000000 0.000000 1.000000
0.017303 -0.147658 -0.371816 0.000000 0.000000 1.000000
-0.387257 0.544080 -0.186814 0.000000 0.000000 1.000000
0.160237 1.227818 0.207117 0.000000 0.000000 1.000000
0.114134 -0.062762 -0.175732 0.000000 0.000000 1.000000
-0.062244 -0.393585 0.049341 0.000000 0.000000 1.000000
0.214643 -0.168341 -0.049527 0.000000 0.000000 1.000000
-0.013213 0.918571 0.440919 0.000000 0.000000 1.000000
0.073907 0.884997 0.434507 0.000000 0.000000 1.000000
-0.048343 -0.310120 0.047212 0.000000 0.000000 1.000000
-0.189995 0.624658 0.404237 0.000000 0.000000 1.000000
0.195827 0.590685 0.373967 0.000000 0.000000 1.000000
-0.584602 0.455339 -0.102013 0.000000 0.000000 1.000000
-0.001971 -0.130711 -0.320994 0.000000 0.000000 1.000000
0.163206 0.017750 -0.033850 0.000000 0.000000 1.000000
-0.195272 0.606973 0.407367 0.000000 0.000000 1.000000
0.003947 0.557307 0.428017 0.000000 0.000000 1.000000
-0.024759 -0.165013 -0.362937 0.000000 0.000000 1.000000
-0.209972 0.482471 0.363706 0.000000 0.000000 1.000000
-0.070169 1.113659 0.339423 0.000000 0.000000 1.000000
-0.289052 0.489967 0.329747 0.000000 0.000000 1.000000
0.021198 -0.092565 -0.261292 0.000000 0.000000 1.000000
0.049566 -0.159080 -0.266551 0.000000 0.000000 1.000000
0.030937 -0.072528 -0.356289 0.000000 0.000000 1.000000
0.020976 -0.199055 -0.221140 0.000000 0.000000 1.000000
0.331059 -0.134492 -0.056907 0.000000 0.000000 1.000000
0.018881 -0.194478 -0.152573 0.000000 0.000000 1.000000
0.101684 0.943883 0.402422 0.000000 0.000000 1.000000
-0.267248 0.038618 0.036789 0.000000 0.000000 1.000000
0.170790 0.548972 0.374974 0.000000 0.000000 1.000000
0.047794 0.993613 0.122734 0.000000 0.000000 1.000000
0.054065 0.487023 0.424594 0.000000 0.000000 1.000000
0.397142 0.936536 0.000247 0.000000 0.000000 1.000000
-0.009509 0.592107 0.457592 0.000000 0.000000 1.000000
0.127825 -0.382077 0.117267 0.000000 0.000000 1.000000
-0.053286 0.507622 0.418586 0.000000 0.000000 1.000000
0.179091 0.651237 0.374295 0.000000 0.000000 1.000000
0.262349 0.525153 0.022151 0.000000 0.000000 1.000000
0.255331 1.244189 -0.062183 0.000000 0.000000 1.000000
0.104603 1.045455 0.288959 0.000000 0.000000 1.000000
0.288053 1.054845 0.130497 0.000000 0.000000 1.000000
0.067787 -0.331122 0.084313 0.000000 0.000000 1.000000
-0.200249 -0.199450 0.050928 0.000000 0.000000 1.000000
-0.186936 0.635604 0.403946 0.000000 0.000000 1.000000
0.066609 0.491259 0.422148 0.000000 0.000000 1.000000
-0.076277 0.176994 -0.099834 0.000000 0.000000 1.000000
0.232122 0.088713 0.007331 0.000000 0.000000 1.000000
0.178771 0.636849 0.400560 0.000000 0.000000 1.000000
0.079803 1.037750 0.393701 0.000000 0.000000 1.000000
-0.105751 1.080877 0.178952 0.000000 0.000000 1.000000
-0.152645 -0.359167 0.085323 0.000000 0.000000 1.000000
-0.166252 -0.030755 -0.078109 0.000000 0.000000 1.000000
0.275481 0.823892 -0.029023 0.000000 0.000000 1.000000
0.106309 0.193037 -0.009747 0.000000 0.000000 1.000000
0.205233 0.769356 -0.097649 0.000000 0.000000 1.000000
0.005774 0.564716 0.434366 0.000000 0.000000 1.000000
0.031474 1.073930 0.408224 0.000000 0.000000 1.000000
-0.133024 -0.330137 0.072430 0.000000 0.000000 1.000000
-0.000869 0.571568 0.456616 0.000000 0.000000 1.000000
-0.173212 -0.144705 0.083236 0.000000 0.000000 1.000000
-0.214321 0.559801 -0.185443 0.000000 0.000000 1.000000
-0.192722 0.628891 0.406772 0.000000 0.000000 1.000000
0.201314 0.519423 0.388908 0.000000 0.000000 1.000000
0.099871 0.991782 0.390152 0.000000 0.000000 1.000000
-0.003605 -0.164170 -0.318338 0.000000 0.000000 1.000000
-0.249928 0.466365 -0.159966 0.000000 0.000000 1.000000
-0.186227 1.311182 -0.062291 0.000000 0.000000 1.000000
-0.241109 0.581518 -0.018315 0.000000 0.000000 1.000000
-0.065197 1.392627 0.193999 0.000000 0.000000 1.000000
-0.016043 -0.164031 -0.249813 0.000000 0.000000 1.000000
-0.006127 0.542590 0.426799 0.000000 0.000000 1.000000
-0.054130 1.088097 0.381043 0.000000 0.000000 1.000000
0.015715 0.502406 0.429505 0.000000 0.000000 1.000000
-0.007035 0.587162 0.459525 0.000000 0.000000 1.000000
-0.011523 0.587864 0.457716 0.000000 0.000000 1.000000
0.012703 0.185399 0.071379 0.000000 0.000000 1.000000
-0.177915 0.527335 0.399333 0.000000 0.000000 1.000000
-0.385321 0.775640 0.097826 0.000000 0.000000 1.000000
0.326602 -0.237159 -0.014644 0.000000 0.000000 1.000000
0.009093 -0.034335 -0.375201 0.000000 0.000000 1.000000
0.115507 0.121583 -0.130652 0.000000 0.000000 1.000000
0.116993 0.774112 0.333308 0.000000 0.000000 1.000000
-0.363613 0.353296 0.012586 0.000000 0.000000 1.000000
-0.002059 0.529676 0.435660 0.000000 0.000000 1.000000
0.198555 0.491677 0.388054 0.000000 0.000000 1.000000
-0.168095 0.055464 0.060529 0.000000 0.000000 1.000000
0.092055 -0.344972 0.113702 0.000000 0.000000 1.000000
-0.101988 0.198235 0.166683 0.000000 0.000000 1.000000
0.209540 0.513161 0.380313 0.000000 0.000000 1.000000
-0.087384 0.900354 0.032196 0.000000 0.000000 1.000000
0.060360 0.473497 0.426562 0.000000 0.000000 1.000000
-0.140543 -0.286546 0.023591 0.000000 0.000000 1.000000
0.134134 0.943020 0.117871 0.000000 0.000000 1.000000
-0.099239 -0.388321 0.115385 0.000000 0.000000 1.000000
0.201395 -0.120131 0.067966 0.000000 0.000000 1.000000
0.085175 1.178397 0.266450 0.000000 0.000000 1.000000
0.087420 0.198864 -0.014426 0.000000 0.000000 1.000000
0.008167 -0.188258 -0.253987 0.000000 0.000000 1.000000
0.208457 0.534216 -0.163339 0.000000 0.000000 1.000000
0.061616 0.475916 0.426102 0.000000 0.000000 1.000000
0.307178 0.863440 -0.137474 0.000000 0.000000 1.000000
0.003028 0.561768 0.441205 0.000000 0.000000 1.000000
-0.067492 0.508430 0.433686 0.000000 0.000000 1.000000
0.218114 0.069042 -0.070276 0.000000 0.000000 1.000000
-0.209387 -0.043756 -0.075590 0.000000 0.000000 1.000000
0.023455 0.503386 0.434519 0.000000 0.000000 1.000000
-0.014123 -0.232786 -0.238350 0.000000 0.000000 1.000000
-0.315402 1.024876 0.087939 0.000000 0.000000 1.000000
0.078998 -0.356054 0.119804 0.000000 0.000000 1.000000
0.019724 0.939263 0.234995 0.000000 0.000000 1.000000
-0.406386 0.689015 -0.086540 0.000000 0.000000 1.000000
0.210927 0.500209 0.393949 0.000000 0.000000 1.000000
-0.440354 0.561547 -0.118607 0.000000 0.000000 1.000000
-0.062822 0.178881 0.128286 0.000000 0.000000 1.000000
0.072976 0.512510 0.428906 0.000000 0.000000 1.000000
-0.128677 0.181479 -0.025346 0.000000 0.000000 1.000000
0.101542 -0.353669 -0.076045 0.000000 0.000000 1.000000
-0.014384 -0.151137 -0.244989 0.000000 0.000000 1.000000
0.072925 0.802990 0.345772 0.000000 0.000000 1.000000
0.199078 0.483202 0.385585 0.000000 0.000000 1.000000
-0.267577 -0.084972 -0.082116 0.000000 0.000000 1.000000
0.277364 -0.248153 -0.023293 0.000000 0.000000 1.000000
-0.615912 0.681168 -0.228155 0.000000 0.000000 1.000000
-0.110447 1.054944 0.300036 0.000000 0.000000 1.000000
-0.204245 0.650818 0.382418 0.000000 0.000000 1.000000
-0.021114 -0.204353 -0.155251 0.000000 0.000000 1.000000
-0.002910 0.529168 0.437708 0.000000 0.000000 1.000000
0.012938 -0.232353 -0.241891 0.000000 0.000000 1.000000
0.118036 1.144960 -0.249775 0.000000 0.000000 1.000000
-0.308244 1.241768 -0.062197 0.000000 0.000000 1.000000
-0.090341 1.041271 -0.063021 0.000000 0.000000 1.000000
-0.224515 0.849380 -0.275088 0.000000 0.000000 1.000000
-0.266667 0.310816 0.015492 0.000000 0.000000 1.000000
0.557075 0.520154 -0.236035 0.000000 0.000000 1.000000
0.038096 -0.342349 0.077666 0.000000 0.000000 1.000000
-0.295428 0.500744 0.353372 0.000000 0.000000 1.000000
0.007054 0.541672 0.427753 0.000000 0.000000 1.000000
-0.319503 -0.237768 0.026284 0.000000 0.000000 1.000000
0.066855 1.117818 0.336978 0.000000 0.000000 1.000000
-0.051534 -0.352567 -0.060539 0.000000 0.000000 1.000000
0.004465 1.266691 0.285979 0.000000 0.000000 1.000000
-0.003297 0.565895 0.432537 0.000000 0.000000 1.000000
0.482958 1.186165 -0.237598 0.000000 0.000000 1.000000
0.174185 0.522901 0.394375 0.000000 0.000000 1.000000
-0.229016 0.471085 0.356149 0.000000 0.000000 1.000000
0.209175 -0.181146 0.059991 0.000000 0.000000 1.000000
-0.200105 1.337742 0.070125 0.000000 0.000000 1.000000
-0.056876 1.135777 0.301003 0.000000 0.000000 1.000000
-0.124331 0.999056 0.123728 0.000000 0.000000 1.000000
-0.059055 -0.393413 0.041076 0.000000 0.000000 1.000000
0.058786 0.184884 0.051268 0.000000 0.000000 1.000000
0.322404 0.759033 0.018461 0.000000 0.000000 1.000000
0.163315 0.461691 -0.388569 0.000000 0.000000 1.000000
0.014867 0.505355 0.421166 0.000000 0.000000 1.000000
-0.173168 0.647083 0.375623 0.000000 0.000000 1.000000
0.090024 1.090562 0.335083 0.000000 0.000000 1.000000
0.213245 1.165084 0.008687 0.000000 0.000000 1.000000
-0.043207 -0.144659 -0.342345 0.000000 0.000000 1.000000
0.313384 0.848872 -0.041635 0.000000 0.000000 1.000000
0.039385 -0.258204 0.046813 0.000000 0.000000 1.000000
-0.369812 0.752065 0.098794 0.000000 0.000000 1.000000
0.235233 0.321950 0.265732 0.000000 0.000000 1.000000
0.021066 1.102615 0.387311 0.000000 0.000000 1.000000
0.091375 0.139405 0.090824 0.000000 0.000000 1.000000
0.304603 0.357495 0.020738 0.000000 0.000000 1.000000
0.208536 -0.169289 -0.024417 0.000000 0.000000 1.000000
0.127152 0.788575 0.314202 0.000000 0.000000 1.000000
0.509701 0.790926 -0.011705 0.000000 0.000000 1.000000
-0.036620 1.092152 0.389813 0.000000 0.000000 1.000000
0.185429 0.533803 0.402901 0.000000 0.000000 1.000000
0.010971 0.600545 0.445305 0.000000 0.000000 1.000000
-0.227883 0.635958 -0.133372 0.000000 0.000000 1.000000
-0.019100 0.798037 0.014560 0.000000 0.000000 1.000000
